# .PCD v0.7 - Point Cloud Data file format
VERSION 0.7
FIELDS x y z rgba
SIZE 4 4 4 4
TYPE F F F U
COUNT 1 1 1 1
WIDTH 1106
HEIGHT 1
VIEWPOINT 0 0 0 1 0 0 0
POINTS 1106
DATA ascii
0.65529859 -0.33456141 2.1168766 4286019442
0.66499567 -0.3351233 2.1158097 4286150784
0.67431998 -0.33489665 2.1141331 4286085008
-0.30195335 -0.32289335 2.1130667 4279571728
-0.29344091 -0.32454637 2.1134543 4280427047
-0.28357762 -0.32413763 2.1144469 4281019171
-0.27498478 -0.32548097 2.1142857 4280229683
-0.26477879 -0.32517719 2.1136639 4280427044
-0.25483197 -0.32506752 2.1129599 4280229682
-0.24498333 -0.32289335 2.1130667 4280361283
0.46616748 -0.32169625 2.1123998 4286743171
0.47479063 -0.32397813 2.1129999 4286874746
0.48266801 -0.32097802 2.112 4286480009
0.49099001 -0.32054001 2.112 4286480248
0.51595187 -0.32473478 2.1121521 4286414216
0.52525502 -0.32511801 2.1132798 4286480017
0.53478742 -0.32471001 2.1131127 4286282627
0.54484737 -0.32376927 2.1130664 4286414200
0.55496448 -0.32409549 2.1137598 4286216820
0.56530946 -0.3240495 2.1123366 4286217069
0.57534236 -0.32383358 2.1133175 4286414216
0.58475327 -0.322974 2.1126397 4286348437
0.59509438 -0.32210889 2.112711 4286216826
0.60439599 -0.32282799 2.1126399 4286151053
0.61430103 -0.32436576 2.1158738 4286414225
0.62530231 -0.32456157 2.1184003 4286216559
0.63747001 -0.32481501 2.1184003 4286151005
0.64503527 -0.32510829 2.118212 4286151049
0.65629858 -0.32450145 2.1184003 4286019414
0.66507614 -0.32575622 2.116724 4286085010
0.6732673 -0.32603267 2.1154132 4286085237
-0.32150999 -0.31178001 2.112 4279900708
-0.31144667 -0.31303331 2.1130667 4281282331
-0.30405042 -0.31442741 2.115061 4279637526
-0.29482862 -0.31417602 2.1143465 4279900716
-0.28704 -0.31577843 2.1161847 4281084969
-0.27469799 -0.31566301 2.1174402 4280624430
-0.26515162 -0.3146612 2.1166081 4281084978
-0.255142 -0.31449747 2.11552 4280163896
-0.24504501 -0.3153075 2.1136 4280295486
0.30921999 -0.312875 2.112 4287138140
0.31408498 -0.31292203 2.1123197 4286677388
0.32375363 -0.31337273 2.1119998 4287071859
0.33112001 -0.31178001 2.112 4287006189
0.36835 -0.31178001 2.112 4286545902
0.37272999 -0.31178001 2.112 4286809229
0.385432 -0.31221801 2.112 4286480248
0.39548939 -0.31386256 2.1121998 4286808979
0.40557998 -0.312875 2.1119998 4286611592
0.41504502 -0.31189749 2.1127999 4286808985
0.42638499 -0.31178001 2.112 4287006604
0.43514499 -0.31178001 2.112 4286743154
0.44500002 -0.31178001 2.112 4286874534
0.4553746 -0.31229848 2.1132307 4286611605
0.46500525 -0.31471387 2.1150608 4286480002
0.47534907 -0.3145209 2.1176729 4286743161
0.48491883 -0.3142952 2.1141758 4286414205
0.49266142 -0.31341141 2.112457 4286545839
0.50495124 -0.31424376 2.1119998 4286348131
0.51469111 -0.31507671 2.1128888 4286282631
0.52478546 -0.31424662 2.1150668 4286677381
0.53542131 -0.31463292 2.1152 4286611587
0.54552817 -0.31442234 2.1164193 4286414211
0.55544287 -0.31479126 2.1162667 4286414210
0.56507373 -0.31430906 2.1156573 4286348426
0.57536358 -0.31460235 2.1162241 4286348427
0.58531004 -0.31464049 2.1164804 4286216821
0.59467906 -0.31498769 2.1168003 4286480017
0.60378098 -0.31655276 2.1172366 4286348422
0.61477166 -0.31895497 2.1184003 4286414195
0.63857001 -0.31931999 2.1184001 4286151326
0.64625669 -0.31931999 2.1184001 4286216921
0.66575122 -0.31795001 2.1184003 4286019433
0.67413849 -0.31509924 2.1184003 4286216838
-0.39599273 -0.30358636 2.1131635 4284177243
-0.32397449 -0.30425 2.1137776 4279900701
-0.31504452 -0.30465195 2.11344 4280953395
-0.30688769 -0.30507234 2.1156924 4279834911
-0.29590583 -0.30481169 2.1168001 4279703384
-0.28942999 -0.3049275 2.1176 4280558600
-0.26610833 -0.30797336 2.1184003 4280887603
-0.25433001 -0.30716333 2.1178668 4280163894
-0.24621698 -0.303783 2.1142399 4280229690
0.23038 -0.30083001 2.112 4286742862
0.27527499 -0.30083001 2.112 4287466819
0.28606859 -0.30145571 2.1119998 4286808674
0.2956818 -0.30302 2.1119998 4287072107
0.30502251 -0.30502748 2.1119998 4286874493
0.31496689 -0.30507731 2.1126735 4286808946
0.32454997 -0.30520999 2.1119998 4287203694
0.33276254 -0.30384123 2.1119998 4286874742
0.34688801 -0.30367699 2.1119998 4286940543
0.35514474 -0.30397591 2.1123762 4286940548
0.36518836 -0.30444112 2.1134222 4286677377
0.37502125 -0.30525836 2.1136 4286808974
0.3851555 -0.3055115 2.11408 4286545808
0.3949475 -0.305415 2.1146667 4287006311
0.40521425 -0.30577287 2.1144381 4286874764
0.41536912 -0.3052254 2.1162183 4286808967
0.42506999 -0.30586046 2.1150479 4286940270
0.43503162 -0.30558914 2.1158669 4286743163
0.44490564 -0.3059276 2.1155047 4286742923
0.45469424 -0.305071 2.1173897 4286480004
0.4651843 -0.30739713 2.1184003 4286545810
0.47428569 -0.30771142 2.1184003 4286677398
0.48568574 -0.30579573 2.1181719 4286611613
0.49485654 -0.30548951 2.1158957 4286348438
0.50486213 -0.30607048 2.1155369 4286545544
0.5139932 -0.30568162 2.1160424 4286348470
0.52462083 -0.30653498 2.1173337 4286545819
0.53552067 -0.30544853 2.1179433 4286348456
0.54332286 -0.30708429 2.1184003 4286413955
0.55619001 -0.30834001 2.1184001 4286348181
0.56497663 -0.30650833 2.1184003 4286282380
0.5754112 -0.30696625 2.1184003 4286348161
0.58461708 -0.30562651 2.1184003 4286151001
0.59333366 -0.30534458 2.1184003 4286545795
0.60012001 -0.30504501 2.1184001 4286348123
0.67591 -0.30834001 2.1184001 4286216851
-0.39514765 -0.29527995 2.1165178 4283387733
-0.38544181 -0.29400548 2.1137455 4281874497
-0.37421247 -0.29218 2.1127999 4280032292
-0.36969 -0.29207 2.112 4280098096
-0.33111 -0.293304 2.1145599 4280887580
-0.32480499 -0.2948665 2.1163201 4280427056
-0.31564754 -0.29601198 2.1174405 4280558635
-0.30794799 -0.29599297 2.1180804 4280427049
-0.29668251 -0.2990025 2.1184001 4279637526
-0.24640498 -0.296552 2.1158402 4280295480
0.12525 -0.29243502 2.1119998 4287664214
0.13291499 -0.29207 2.112 4287006476
0.22819 -0.29207 2.112 4287138209
0.23299335 -0.29378664 2.1125331 4287532380
0.25665998 -0.29207 2.112 4287269747
0.26538 -0.29320928 2.1128531 4287269483
0.27501258 -0.29446089 2.1154783 4287203698
0.28547442 -0.2946184 2.1145599 4287335272
0.29531851 -0.29459602 2.1143999 4286940812
0.30513439 -0.29454604 2.1140478 4286809190
0.31488633 -0.29472631 2.1136839 4286677379
0.32438713 -0.29513666 2.1123044 4287071838
0.33525088 -0.29466128 2.1128347 4286743194
0.34523776 -0.29428637 2.1143274 4286874746
0.35484153 -0.29486647 2.1163201 4286874974
0.36485282 -0.2949796 2.1171203 4286479983
0.37551877 -0.29506084 2.1164 4286743163
0.38523856 -0.29460809 2.115962 4286808914
0.39428198 -0.29482302 2.1160002 4286809201
0.40422261 -0.29546306 2.1178439 4286940529
0.41486832 -0.29772249 2.1184003 4286611587
0.42548501 -0.29881999 2.1184003 4286545746
0.43464336 -0.29955 2.1184001 4286611832
0.44745499 -0.29955 2.1184001 4286874754
0.48699501 -0.29955 2.1184001 4286677139
0.49468374 -0.29872876 2.1184003 4286282631
0.51225668 -0.29955 2.1184001 4286414034
0.56497997 -0.29955 2.1184001 4286413881
-0.39168832 -0.28637168 2.1184003 4283190360
-0.38476104 -0.286502 2.1177602 4282137661
-0.37512362 -0.28547406 2.1162183 4281282351
-0.36505863 -0.28447598 2.1130664 4282071861
-0.35482788 -0.28390214 2.1129141 4284769403
-0.34617564 -0.28426564 2.1129997 4284835170
-0.33509132 -0.28485399 2.1147733 4281545516
-0.32469001 -0.28668427 2.1184003 4281282366
-0.240702 -0.28575999 2.11392 4280295472
0.085833997 -0.28185001 2.112 4287072186
0.094594002 -0.28233665 2.1119998 4287664192
0.107292 -0.28309101 2.1119998 4287269465
0.11558825 -0.28472707 2.1119998 4287466887
0.12530442 -0.28562081 2.1128957 4287335277
0.13501948 -0.28545159 2.1133473 4286743155
0.14380667 -0.28392264 2.1122129 4287006313
0.16685998 -0.2816675 2.112 4287598432
0.17477769 -0.28364691 2.1119998 4287664241
0.18379852 -0.28484097 2.1127999 4287006557
0.19369751 -0.28248876 2.1119998 4287401083
0.218335 -0.28112 2.112 4286874813
0.22560734 -0.28453532 2.1124263 4287138127
0.23523794 -0.28567919 2.1146667 4287532920
0.2448394 -0.28527725 2.1139555 4286874720
0.25491881 -0.2860024 2.1157122 4287532650
0.26477331 -0.28534603 2.1173337 4286874747
0.27469996 -0.28621429 2.1184003 4287072145
0.28546867 -0.285844 2.1177604 4287400829
0.29504555 -0.28505504 2.1168001 4286743177
0.30521578 -0.28514895 2.1162107 4286874748
0.31506056 -0.28508052 2.1160889 4286743155
0.32522374 -0.28575173 2.1152 4287137906
0.33523065 -0.28510877 2.1172004 4286611593
0.34446883 -0.2854147 2.1180239 4286874736
0.35381877 -0.286645 2.1184003 4286479977
0.36599085 -0.28655413 2.1184003 4286479976
0.37514582 -0.2861875 2.1184003 4286545817
0.38467246 -0.28606808 2.1182003 4286611612
0.39407402 -0.28812999 2.1184001 4287137912
-0.39059001 -0.27978 2.1184001 4283848261
-0.37520999 -0.27978 2.1184001 4282795594
-0.36497894 -0.27539739 2.1167161 4282664002
-0.35507566 -0.27510157 2.1162243 4284900964
-0.34524208 -0.27513593 2.1164804 4284703571
-0.33648649 -0.27515653 2.1166403 4282006083
-0.24158143 -0.27414712 2.1161144 4280229688
-0.23864999 -0.27278 2.1152 4280229688
-0.061083999 -0.27099001 2.1184001 4286084901
-0.056006253 -0.27271417 2.1133332 4286413943
-0.046178278 -0.27183726 2.1125815 4287006609
0.026703 -0.27017 2.112 4287598490
0.036345102 -0.271525 2.1123197 4287335314
0.044863142 -0.27323002 2.1126854 4287269228
0.05454728 -0.27236 2.1119998 4287204004
0.065028004 -0.271265 2.1119998 4287532623
0.07489261 -0.27239153 2.1122458 4287335245
0.084857956 -0.27451631 2.1135156 4286808692
0.094680436 -0.27480003 2.1139197 4287532625
0.10500956 -0.27501863 2.1133089 4287072080
0.11481956 -0.27459085 2.1145043 4287598703
0.12526999 -0.27516878 2.1153333 4287203460
0.13513143 -0.27491811 2.1164193 4287269482
0.1451676 -0.2749356 2.114944 4287532639
0.15466736 -0.27436265 2.1123366 4287598429
0.1647108 -0.27461606 2.1125116 4287269469
0.17483702 -0.27503049 2.1156802 4287532654
0.18460871 -0.27554911 2.1167305 4287137924
0.19517833 -0.2763539 2.1155555 4287335283
0.20455667 -0.27425998 2.1145904 4286940534
0.21515262 -0.2748026 2.1139476 4286940525
0.22491759 -0.27467951 2.1145904 4287072105
0.23520041 -0.27506956 2.1159682 4287401092
0.2452625 -0.27528098 2.1176004 4286611602
0.25414556 -0.27624056 2.1184003 4287401060
0.26293001 -0.27978 2.1184001 4287006545
0.28600001 -0.27978 2.1184001 4287203863
0.29576111 -0.27807111 2.1184003 4286809170
0.30419713 -0.27883714 2.1184003 4286743137
0.31491998 -0.27941334 2.1184003 4287137879
0.32602444 -0.27880222 2.1184003 4287072144
0.334764 -0.27934 2.1184001 4286611373
-0.36367875 -0.26632625 2.1184003 4282400845
-0.35544395 -0.26440394 2.1184003 4284900970
-0.34503505 -0.26408589 2.1182549 4284572003
-0.3363356 -0.26510125 2.1174002 4281677106
-0.24340999 -0.26352602 2.1184001 4280361267
-0.061083995 -0.264404 2.1184001 4286348189
-0.054749791 -0.26462823 2.1171482 4287006322
-0.044626884 -0.26489413 2.1161413 4287137920
-0.034624629 -0.2639237 2.1123998 4286874753
-0.028047999 -0.26250499 2.112 4286677565
0.0057411226 -0.2620357 2.1119998 4287466820
0.015030916 -0.26391584 2.1130664 4287335280
0.024843775 -0.26452544 2.1146181 4287532637
0.035813477 -0.26445308 2.1157565 4287137870
0.045407798 -0.26412201 2.1161602 4287401347
0.05524867 -0.26479861 2.1148953 4287269462
0.0652951 -0.26420945 2.1150315 4287335284
0.075029075 -0.26411325 2.1160963 4287467098
0.085115582 -0.26446524 2.1170528 4287072092
0.094824165 -0.26424238 2.1171203 4286874751
0.10469601 -0.26422197 2.1169603 4287598457
0.11429857 -0.26504004 2.1176383 4287335271
0.12425127 -0.26533937 2.1182003 4287203698
0.1347535 -0.26528248 2.1184003 4287664252
0.14529043 -0.26475081 2.1181221 4287466839
0.15520106 -0.26438004 2.116379 4286940558
0.16533723 -0.26561001 2.1173334 4286677388
0.17553285 -0.26785716 2.1184003 4287795814
0.18054999 -0.26879999 2.1184001 4287664150
0.20691334 -0.26879999 2.1184001 4286677439
0.2146025 -0.26879999 2.1184001 4286611363
0.22536501 -0.26748005 2.1184003 4287203680
0.23470916 -0.26693252 2.1181338 4287401074
0.24645333 -0.26770002 2.1184003 4286742929
0.25084999 -0.26770002 2.1184001 4286874882
-0.36423001 -0.25121999 2.1184001 4281808724
-0.35538948 -0.25447947 2.1180804 4282729792
-0.34443349 -0.25449848 2.1182404 4282466628
-0.334575 -0.25319901 2.1184003 4281479746
-0.32304251 -0.25176999 2.1184001 4281282358
-0.3142544 -0.25234887 2.1155558 4281611336
-0.30548251 -0.2527667 2.1160002 4281413949
-0.29466668 -0.25195333 2.1184001 4281150762
-0.28531247 -0.25195 2.1176002 4281282356
-0.27856001 -0.25121999 2.1184001 4281348151
-0.26213253 -0.25348753 2.1143999 4281545539
-0.255705 -0.25327334 2.1141331 4280953375
-0.24611001 -0.25610602 2.1152 4280427036
-0.062040247 -0.25394002 2.1136 4285887866
-0.054103732 -0.25459641 2.1149092 4286874760
-0.044493526 -0.25505894 2.1157055 4287006350
-0.03466348 -0.25518045 2.114816 4287598465
-0.025296997 -0.2539033 2.1139197 4287137896
-0.014555444 -0.25359383 2.1137776 4286940543
-0.0048844158 -0.25485316 2.1140208 4287072350
0.0048118453 -0.25530517 2.1158402 4287335271
0.01469365 -0.25546002 2.1171203 4287466867
0.02320631 -0.25634247 2.1176002 4287598435
0.034832265 -0.25644335 2.1179738 4287269513
0.045356367 -0.25581637 2.1184003 4287927454
0.055218004 -0.25570953 2.1175275 4287466874
0.064966075 -0.25558615 2.1181543 4287072121
0.076210245 -0.2572625 2.1184001 4287467184
0.086094998 -0.256715 2.1184001 4286743149
0.097079001 -0.256715 2.1184001 4286743149
0.10477 -0.25781 2.1184001 4287664437
0.11465 -0.256715 2.1184001 4287071842
0.14467333 -0.25781 2.1184001 4287466820
0.1563925 -0.2572625 2.1184001 4286874733
0.16518 -0.25561666 2.1184001 4286545809
-0.36423001 -0.24097334 2.1184001 4281611338
-0.35519904 -0.24556498 2.11696 4282335032
-0.34520411 -0.24564588 2.118212 4282400820
-0.3341043 -0.24808714 2.1184003 4281545539
-0.32285833 -0.24756335 2.1184003 4281348153
-0.31457472 -0.24508059 2.1155765 4281479743
-0.30365998 -0.24632284 2.1140571 4281413949
-0.295275 -0.2458857 2.1156571 4281150763
-0.28616399 -0.24682002 2.1145601 4281216559
-0.27990001 -0.24827 2.112 4281479743
-0.062005002 -0.24503127 2.1123998 4285756232
-0.054384403 -0.24524698 2.1142399 4287072099
-0.044605099 -0.24461503 2.1182404 4286743157
-0.034699287 -0.24520619 2.1170287 4286874983
-0.024829447 -0.24454002 2.1176004 4286940800
-0.014946202 -0.24451365 2.1173763 4287269746
-0.005204381 -0.2455475 2.1180003 4286743177
0.0035967943 -0.24780777 2.1184003 4287071878
0.013604 -0.24902999 2.1184001 4287532843
0.056220196 -0.24727002 2.1184001 4287466842
0.064128667 -0.24829666 2.1184001 4287269754
-0.37081999 -0.23255 2.1184001 4281282357
-0.36445642 -0.23476075 2.1142857 4281479746
-0.35510504 -0.23552869 2.1128726 4282071863
-0.34601447 -0.23450251 2.1152 4282203433
-0.31382835 -0.23538944 2.114311 4281150765
-0.29742 -0.23951 2.112 4280953374
-0.063145734 -0.235346 2.11392 4285493093
-0.054393001 -0.23541798 2.1145599 4287138169
-0.046648569 -0.2358457 2.1184003 4286611594
-0.038374666 -0.236885 2.1178668 4286414234
-0.011658 -0.23804 2.1184001 4287269447
-0.38064 -0.22418 2.112 4281940316
-0.37535 -0.22551142 2.1156573 4281479746
-0.36603999 -0.22856002 2.112 4281413950
-0.35436001 -0.22856 2.112 4282400818
-0.34417933 -0.22619626 2.1141999 4282335023
-0.33581877 -0.22230749 2.1176002 4282006070
-0.32359001 -0.22157 2.1184001 4281413948
-0.31577334 -0.22508444 2.1159112 4281348153
-0.063088 -0.2280125 2.112 4285558927
-0.053677626 -0.22504191 2.1152 4287137891
-0.047904 -0.22815999 2.1184001 4287532902
-0.34121999 -0.2198 2.112 4282335021
-0.33544168 -0.21679001 2.1146667 4281940281
-0.32541001 -0.21699801 2.1145599 4281479743
-0.31745335 -0.21856 2.1141334 4281413948
-0.054106642 -0.21563785 2.1156573 4286940508
-0.057306662 -0.20504166 2.1141331 4286545551
0.65274 -0.33081001 2.1215999 4286216851
0.62743998 -0.32201001 2.1215999 4286151268
0.63293999 -0.32530999 2.1215999 4286413931
0.65310669 -0.32604334 2.1215999 4286216855
-0.29218 -0.31321001 2.1215999 4280624395
-0.28334168 -0.31428665 2.1227 4280755988
-0.27629 -0.314722 2.12292 4280229691
0.60654002 -0.31320998 2.1215997 4286282643
0.61574858 -0.31418598 2.1222599 4286216819
0.62542337 -0.31522661 2.1216002 4286019444
0.63542569 -0.31540683 2.1231632 4286216823
0.64502949 -0.3146176 2.1219144 4286151071
0.65529257 -0.31557795 2.1227553 4285953642
0.66435301 -0.31418347 2.1229529 4285822322
0.67408001 -0.31277001 2.1215999 4286151014
0.68023998 -0.31211001 2.1215999 4286216921
-0.302127 -0.30445597 2.1219299 4279440138
-0.29253998 -0.30478001 2.1242399 4280492816
-0.2858341 -0.30547649 2.1254411 4280624393
-0.27522552 -0.30521557 2.1246889 4280887603
-0.26480752 -0.30345374 2.1226311 4281545528
-0.2565214 -0.30319282 2.1230142 4280229676
-0.24597999 -0.30001 2.1215999 4280427077
0.43713999 -0.30001 2.1215999 4286874813
0.44374001 -0.30001 2.1215999 4286479763
0.45473999 -0.30001 2.1215999 4286414504
0.46493331 -0.30235666 2.1215997 4286611572
0.47474858 -0.30287144 2.1218355 4286743183
0.48175111 -0.30245441 2.1215999 4286545822
0.50460666 -0.30074331 2.1215999 4286545832
0.51854002 -0.30111 2.1215999 4286414238
0.52574098 -0.301862 2.1222601 4286545571
0.53390783 -0.30128333 2.1219664 4286282600
0.54590499 -0.30325145 2.1223068 4286480031
0.55473524 -0.303572 2.1215999 4286216542
0.56437331 -0.30221 2.1215999 4286282651
0.57434666 -0.30235669 2.1215997 4286282636
0.58454001 -0.30074331 2.1215999 4286085188
0.59584004 -0.30241001 2.1215997 4286413983
0.60627812 -0.3042005 2.1215999 4286216832
0.61571801 -0.30459496 2.1229203 4286019419
0.62508476 -0.30494907 2.1239529 4286151000
0.63491464 -0.30513281 2.125962 4286085223
0.64485091 -0.30488867 2.1269875 4286085246
0.65392351 -0.30561942 2.127347 4285953652
0.66656536 -0.30723384 2.1271074 4285822076
0.67391437 -0.30425477 2.1234765 4286085267
0.680632 -0.30477801 2.1242201 4286348176
-0.39998999 -0.29341 2.1215999 4282400842
-0.32738 -0.29231 2.1215999 4280032300
-0.31418002 -0.29121 2.1215999 4282400818
-0.30380461 -0.29453152 2.1236229 4279834906
-0.29482707 -0.29502118 2.1239059 4279900726
-0.28646001 -0.29872 2.1280999 4280690190
-0.270805 -0.29518253 2.1265001 4282335022
-0.26612666 -0.29602998 2.1272998 4281677110
-0.25501615 -0.29576075 2.1263614 4280229688
-0.24651143 -0.29366571 2.1234713 4280295487
0.40854001 -0.29121 2.1215999 4286414297
0.41586304 -0.29323402 2.1219296 4286545776
0.42502373 -0.29417998 2.1222186 4286743147
0.43481058 -0.29444528 2.1225705 4286677403
0.44487399 -0.294532 2.1217649 4286545792
0.45487005 -0.29459253 2.1222184 4286545755
0.46509999 -0.29480001 2.1237452 4286480015
0.47508126 -0.29484501 2.1240754 4286545766
0.48480898 -0.29473251 2.1232505 4286611584
0.49521184 -0.29412502 2.1218059 4286348423
0.50551534 -0.29460415 2.1237354 4286480008
0.51448375 -0.29470435 2.123044 4286348434
0.52444059 -0.29536414 2.126406 4286545800
0.53427106 -0.29499683 2.1264107 4286348164
0.54504651 -0.29516003 2.1263402 4286348447
0.55514944 -0.29517722 2.1247001 4286216859
0.56441665 -0.29441273 2.1227 4286282622
0.57519525 -0.29508424 2.1245317 4286151023
0.58505762 -0.29473647 2.1246824 4286085221
0.59491116 -0.29522726 2.1250558 4286348431
0.60482246 -0.29534876 2.1266937 4286216840
0.61383998 -0.29716751 2.1269 4285953635
0.62439746 -0.29872 2.1280999 4286151049
0.63378 -0.29872 2.1280999 4286019247
0.64811999 -0.29872 2.1280999 4285953652
0.65511328 -0.29798332 2.1280999 4285887940
0.67294753 -0.2981675 2.1280999 4286019455
-0.40059999 -0.28394252 2.1249001 4282598207
-0.39619002 -0.28438786 2.1223071 4282927185
-0.38544366 -0.28204906 2.1218996 4282400830
-0.37432334 -0.28020999 2.1215999 4282532433
-0.33177999 -0.28351 2.1215999 4280887578
-0.32526338 -0.28370386 2.1221497 4280492846
-0.31528002 -0.28461 2.1215999 4281940289
-0.30615431 -0.28515095 2.1240907 4280492835
-0.29772818 -0.28652361 2.1269362 4279571729
-0.27101001 -0.28547999 2.1280999 4282137650
-0.26660001 -0.28492749 2.1280999 4281479728
-0.25150999 -0.28548285 2.1258142 4280295486
-0.24643598 -0.28513134 2.1255336 4280229691
0.26809666 -0.2809433 2.1215999 4286808859
0.27583 -0.28201002 2.1215997 4287335543
0.28422999 -0.28108999 2.1215999 4287401006
0.29082999 -0.28130999 2.1215999 4287269447
0.34472999 -0.28020999 2.1215999 4287006061
0.35504252 -0.28309751 2.1215997 4286479991
0.36434662 -0.28259334 2.1215997 4286677363
0.37467444 -0.28143221 2.1215999 4286677402
0.38568223 -0.28118777 2.1215999 4286545795
0.39579931 -0.28346202 2.1229198 4286874751
0.40498906 -0.28523001 2.1247144 4286743157
0.41519833 -0.28509495 2.1266296 4286348425
0.42510301 -0.28539202 2.12746 4286874473
0.43500596 -0.2853744 2.1273322 4286348188
0.4451645 -0.28550175 2.1260595 4286348429
0.45500505 -0.28523949 2.1270821 4286808722
0.46521628 -0.28636259 2.1269212 4286413941
0.47505549 -0.28529954 2.1275184 4286611612
0.48501548 -0.28560084 2.1267912 4286545824
0.49429855 -0.28550249 2.1266603 4286282636
0.50429815 -0.28792727 2.1269362 4286414203
0.51503599 -0.28821701 2.12714 4286480018
0.5240671 -0.28894717 2.1280997 4286480055
0.53569555 -0.2886667 2.1280997 4286282671
0.54477 -0.28952333 2.1280997 4286348142
0.55552232 -0.28734696 2.1280997 4286282648
0.56495261 -0.28666425 2.1274264 4286413965
0.57419252 -0.28933999 2.1280999 4286019178
0.58853501 -0.28988999 2.1280999 4286282633
0.59449595 -0.28944999 2.1280999 4286282633
0.605088 -0.28856999 2.1280999 4286348394
0.61171001 -0.28768668 2.1280999 4285953587
-0.40121001 -0.27444601 2.1280999 4283058766
-0.39522669 -0.27460834 2.1255889 4283650889
-0.38482553 -0.27487653 2.12292 4281808695
-0.37476003 -0.27476192 2.1220121 4281348143
-0.36699 -0.27140999 2.1215999 4280690190
-0.33177999 -0.27471 2.1215999 4281611337
-0.32538 -0.27487701 2.1229203 4280361255
-0.31504557 -0.27478945 2.1241672 4279834911
-0.30626282 -0.27537501 2.1255569 4280098089
-0.29969999 -0.27665332 2.1280999 4279769118
-0.27101001 -0.27444598 2.1280999 4280558625
-0.26501998 -0.27224001 2.1280997 4280361252
-0.25241002 -0.2737211 2.1263111 4280295485
-0.24668601 -0.27544501 2.1238999 4280295485
-0.168395 -0.27224001 2.1280999 4281019172
0.18742999 -0.27140999 2.1215999 4286940466
0.19512999 -0.27140999 2.1215999 4287335342
0.2563633 -0.27214333 2.1215999 4287532882
0.26442999 -0.27471003 2.1215999 4286940738
0.27467826 -0.27479881 2.1217937 4287466848
0.28452948 -0.2747179 2.1221211 4287269474
0.29493666 -0.27390334 2.1215997 4287071834
0.30541998 -0.27397999 2.1218534 4286874745
0.31506684 -0.27466637 2.1226423 4287006303
0.32470861 -0.27381572 2.1232429 4286808937
0.33522192 -0.2739248 2.1241002 4286677381
0.34484825 -0.27462998 2.1235352 4287006316
0.35503951 -0.27502251 2.1240752 4286874785
0.36502188 -0.27507502 2.1244879 4287006347
0.37483349 -0.27500153 2.1239102 4286677392
0.38504943 -0.27475351 2.1245 4286479741
0.39426056 -0.27519631 2.1267526 4286809213
0.40500501 -0.27812332 2.1280997 4286743188
0.41442204 -0.278418 2.1280999 4286413961
0.42589396 -0.278418 2.1280999 4286611550
0.43571746 -0.27720419 2.1280997 4286348180
0.44430858 -0.27759856 2.1280997 4286413952
0.45282 -0.27886 2.1280999 4286940536
0.47599 -0.27886 2.1280999 4286545832
0.48497573 -0.27791286 2.1280997 4286414206
0.49254334 -0.27886 2.1280999 4286216828
-0.39267334 -0.26621887 2.1270335 4282335029
-0.38444003 -0.26675823 2.1258354 4281216553
-0.3753539 -0.26576889 2.1254225 4280558637
-0.36708334 -0.26359335 2.1221497 4281282344
-0.33266872 -0.26348501 2.1220124 4281019172
-0.32549497 -0.2653971 2.124867 4280624415
-0.31490794 -0.26544872 2.1253004 4280690216
-0.30783376 -0.26388752 2.1252875 4281019183
-0.270805 -0.26431501 2.1265001 4281282356
-0.2651343 -0.26431641 2.1264927 4280821784
-0.25481203 -0.2643055 2.1255305 4280361265
-0.246792 -0.266294 2.12292 4280361274
-0.16949999 -0.26783001 2.1280999 4281084966
0.081827 -0.26041001 2.1215999 4287729804
0.11648 -0.26096001 2.1215999 4287203713
0.12582999 -0.26096001 2.1215999 4287335284
0.13331001 -0.26129001 2.1215999 4287730255
0.14673001 -0.26041001 2.1215999 4287269388
0.15443 -0.26041001 2.1215999 4287138209
0.16480143 -0.26135287 2.1215999 4286611634
0.17517923 -0.26310226 2.1228695 4287401307
0.18543997 -0.26510656 2.1240308 4287335255
0.19519429 -0.26504043 2.1251857 4287137912
0.20495635 -0.26450136 2.1239865 4287269487
0.21505252 -0.26385999 2.1228375 4286808958
0.22426599 -0.26278335 2.1218197 4287072156
0.23485221 -0.26187667 2.1215999 4286808687
0.24428722 -0.26362109 2.1228836 4286940295
0.25502717 -0.26457667 2.1227002 4287137900
0.26475596 -0.26513118 2.1242325 4286743163
0.27470851 -0.26517147 2.1245553 4287335278
0.28480601 -0.26534119 2.1259122 4287006575
0.2950612 -0.26640174 2.1250589 4287137891
0.30477497 -0.26644939 2.1259613 4286808970
0.31509462 -0.26780689 2.1266234 4286940521
0.32546628 -0.26850125 2.1268997 4286808677
0.33634287 -0.2680257 2.1271856 4286545802
0.34519047 -0.26552236 2.1273382 4287072152
0.35501501 -0.26541415 2.1250339 4287203923
0.36485618 -0.26502335 2.1250529 4286808989
0.37443569 -0.26585335 2.1258144 4286940269
0.38384581 -0.2671383 2.1270332 4286611583
0.39103001 -0.26783001 2.1280999 4286677208
-0.37252599 -0.25502801 2.1280999 4281413949
-0.36555308 -0.25556231 2.1221075 4281742920
-0.33436713 -0.25732285 2.1220715 4281413949
-0.32569331 -0.25571069 2.1239998 4281282357
-0.3157143 -0.25748998 2.1234858 4281479744
-0.30476999 -0.25723284 2.1239429 4281413949
-0.295358 -0.25474301 2.1239002 4281216559
-0.28565001 -0.256035 2.1248667 4281348153
-0.27983999 -0.25459 2.1280999 4281348151
-0.26569125 -0.25534624 2.1252749 4281545539
-0.25352889 -0.25696003 2.1234224 4280624393
-0.24856001 -0.25529501 2.1248498 4280558633
0.026825 -0.25286716 2.1215999 4287598429
0.034745 -0.25205001 2.1215999 4287335525
0.044111431 -0.2522386 2.1215999 4287730062
0.056526002 -0.25161001 2.1215999 4287401238
0.065326005 -0.25270998 2.1215999 4286809189
0.074951313 -0.25422251 2.1215997 4287401044
0.084978774 -0.25462285 2.1218352 4286940541
0.094782539 -0.25466552 2.1215999 4286874728
0.10494071 -0.2544657 2.1218352 4287466887
0.11489889 -0.25481498 2.1228833 4287269480
0.12476563 -0.25498185 2.1222186 4287203667
0.13465999 -0.25496751 2.1220951 4287335271
0.14487572 -0.25449285 2.1220713 4287532681
0.15415201 -0.25398201 2.1218197 4287137920
0.16500057 -0.25472116 2.1227589 4286677134
0.17527354 -0.25510293 2.1249003 4287269462
0.18462449 -0.25448745 2.1273 4287335540
0.1938881 -0.25511146 2.1281002 4287401081
0.20543939 -0.25628066 2.1272998 4287532623
0.21486905 -0.25452232 2.1267292 4286874750
0.22493592 -0.25486681 2.125464 4287203709
0.23482572 -0.25582573 2.1253431 4286743144
0.24528582 -0.25724414 2.1272998 4287071891
0.25543001 -0.25654247 2.1275666 4287269460
0.2648409 -0.25759456 2.1280997 4287006318
0.27627569 -0.25773859 2.1280997 4287335277
0.28437003 -0.259 2.1280999 4287335276
0.34909999 -0.259 2.1280999 4287335170
0.35461751 -0.25789502 2.1280997 4287006305
0.364546 -0.25789502 2.1280997 4286874532
0.37226999 -0.259 2.1280999 4286808872
-0.37142 -0.24244499 2.1280999 4281348153
-0.36520335 -0.24595749 2.1218748 4281677134
-0.34247571 -0.24312428 2.1215999 4282203440
-0.33541387 -0.2432054 2.1221075 4281611338
-0.32591838 -0.24420051 2.122642 4281348151
-0.033310335 -0.24134333 2.1215999 4287006295
-0.0045257499 -0.24116001 2.1215999 4287138090
0.005513587 -0.24326876 2.1220121 4287269479
0.014794948 -0.24497315 2.123337 4287598668
0.024657922 -0.24532041 2.1243563 4287532646
0.034574747 -0.24536102 2.1247103 4287203694
0.044463396 -0.24521676 2.1234441 4287137894
0.055218201 -0.24440543 2.1220949 4287598697
0.065520123 -0.24436295 2.1215997 4287269719
0.075291164 -0.24521799 2.1234481 4287137891
0.085250445 -0.24536404 2.1247306 4286940791
0.095247328 -0.24557525 2.1265604 4287400802
0.10511149 -0.24543798 2.1253703 4287466861
0.11503281 -0.24544163 2.1254084 4287203693
0.1249365 -0.245419 2.1252153 4287137897
0.13487521 -0.24545519 2.1255324 4287137905
0.14488098 -0.24560598 2.1268201 4287730055
0.15475081 -0.24551482 2.1260445 4287598446
0.16539499 -0.24598186 2.1264937 4287401088
0.17462401 -0.24556042 2.1264362 4287335256
0.18358901 -0.245756 2.1280997 4287137909
0.19388668 -0.24722667 2.1280999 4287401252
0.21448798 -0.24708 2.1280999 4286611638
0.22111 -0.24796 2.1280999 4287269516
-0.37416002 -0.23531142 2.1248715 4281348151
-0.36919001 -0.23841 2.1215999 4281348151
-0.34059 -0.23511 2.1215999 4282203431
-0.33419231 -0.23496594 2.1248777 4281611329
-0.32452497 -0.23481502 2.1245167 4281348151
-0.31858 -0.23181 2.1215999 4281150763
-0.043095116 -0.23429333 2.1219664 4286479770
-0.033560872 -0.23443937 2.1230373 4287006300
-0.024885561 -0.23519751 2.1224248 4287203668
-0.01534539 -0.23478225 2.1219664 4287137909
-0.0048842467 -0.23497413 2.1233411 4287335267
0.0050192457 -0.23466705 2.1259587 4287466854
0.014759851 -0.23456052 2.1266606 4287466828
0.024499817 -0.23522545 2.1281002 4287072354
0.034406468 -0.23587601 2.1278863 4287335275
0.044549 -0.23634586 2.1275351 4287401360
0.05530905 -0.23577206 2.1260738 4287203690
0.064951174 -0.23416136 2.1257639 4287203683
0.074760847 -0.23538652 2.1271403 4287137936
0.084914565 -0.23819287 2.1280997 4286940538
0.097525001 -0.23914 2.1280999 4287664150
0.10672 -0.23766668 2.1280997 4286809188
0.114297 -0.23759301 2.1280997 4286677388
0.12519181 -0.23709728 2.1278088 4287269467
0.13409571 -0.23819287 2.1280997 4286743131
0.15158999 -0.23914 2.1280999 4287664022
0.16594 -0.23914 2.1280999 4287861824
0.17256001 -0.23914 2.1280999 4287203863
-0.38129002 -0.22741 2.1215999 4281874522
-0.377175 -0.22868499 2.12325 4281545541
-0.34059 -0.22961 2.1215999 4282400818
-0.33428121 -0.22566883 2.1235411 4281874495
-0.32436568 -0.22572072 2.1234787 4281479743
-0.31858 -0.22850999 2.1215999 4281282355
-0.044552762 -0.22544175 2.1250646 4287137884
-0.035541214 -0.22623843 2.1259003 4287072135
-0.024931904 -0.22570403 2.1263404 4287072099
-0.015001639 -0.22559078 2.1252847 4287532677
-0.0054555722 -0.22577946 2.1270337 4287335531
0.00086693 -0.22714999 2.12746 4287796121
0.01808 -0.2281 2.1280999 4287138209
0.020287 -0.2281 2.1280999 4287138209
0.068100668 -0.22736667 2.1280999 4286809136
0.075456999 -0.2281 2.1280999 4287006189
-0.33508 -0.21861 2.1215999 4281940280
-0.32958001 -0.21861 2.1215999 4281677132
-0.050910335 -0.21274333 2.1215999 4287269747
-0.046965122 -0.21599625 2.1256874 4287269708
-0.038193502 -0.21928 2.1280999 4287269803
-0.021641999 -0.21817499 2.1280999 4287796171
-0.015021778 -0.21829778 2.1280997 4287664254
-0.0084015001 -0.21928 2.1280999 4287335170
-0.053071823 -0.20507237 2.1235232 4287203449
-0.048074666 -0.20582335 2.1259668 4287532605
-0.056951001 -0.19942001 2.1280999 4286940536
-0.14368001 -0.43312001 2.138 4281808724
-0.28358501 -0.302495 2.1314001 4280558601
-0.27686834 -0.30280164 2.1336 4280427043
0.65906 -0.30359998 2.1314001 4285756474
0.66398996 -0.30410999 2.1314006 4285822355
0.68336999 -0.30138999 2.1314001 4286348228
-0.29264998 -0.29166499 2.13305 4280295449
-0.28541905 -0.29571903 2.135329 4280690192
-0.2754443 -0.29628855 2.1356428 4281150772
-0.26325297 -0.29232898 2.1314003 4280756014
-0.25728199 -0.292108 2.1314001 4280558629
0.57949001 -0.29034001 2.1314001 4285953594
0.58391339 -0.29034001 2.1314001 4286150983
0.60602003 -0.29107669 2.1314001 4286282890
0.61534727 -0.29299274 2.1317003 4285953651
0.6253047 -0.29413685 2.1345267 4286151032
0.63470274 -0.29513445 2.1341505 4286150751
0.64440608 -0.29474565 2.1341267 4286216853
0.65451837 -0.2945416 2.1334171 4285887905
0.66491961 -0.29502639 2.1341004 4285953409
0.67456371 -0.29445839 2.1326163 4286085237
0.68270725 -0.29505 2.1350002 4286216821
-0.30458 -0.28481498 2.1314001 4279703319
-0.29427168 -0.28444168 2.1341503 4280229662
-0.27447999 -0.2868 2.138 4281808701
-0.26443353 -0.28503585 2.1315947 4280821805
-0.25615457 -0.28491548 2.1314003 4280427051
0.46456498 -0.28150001 2.1314001 4286545531
0.47782999 -0.28150001 2.1314001 4286677208
0.49919334 -0.28223667 2.1314001 4286151268
0.50635207 -0.28361803 2.1323903 4286545531
0.51479381 -0.28350228 2.1324158 4286545822
0.52498835 -0.28343055 2.1339672 4286611586
0.53453946 -0.28399175 2.1325653 4286414240
0.54556805 -0.28465131 2.1318405 4286348434
0.55425268 -0.28334728 2.1317003 4286348395
0.56512499 -0.28150001 2.1314001 4286611392
0.57524741 -0.28467998 2.1320605 4286084962
0.58517677 -0.28411996 2.1353004 4286216556
0.59511906 -0.28432101 2.1335456 4286348135
0.60477269 -0.28370056 2.1340058 4286414192
0.61518753 -0.28378999 2.1337104 4286151027
0.62516826 -0.28475499 2.135617 4286216837
0.63441819 -0.2851553 2.1364474 4286150797
0.64403617 -0.2862877 2.1380002 4286282585
0.65282458 -0.28700182 2.1380002 4286216581
0.66552001 -0.28902 2.138 4285953594
0.67390722 -0.28587183 2.1371002 4286151047
0.68262571 -0.28648287 2.1380002 4286019213
-0.39962 -0.27045 2.1314001 4282861390
-0.30321109 -0.27348888 2.1321335 4280295476
-0.29495049 -0.27516299 2.1337104 4280558623
-0.27447999 -0.27127999 2.138 4280887578
-0.26459891 -0.27577668 2.1317673 4280361256
-0.25683904 -0.27575403 2.1314003 4280427058
-0.175442 -0.271918 2.1360199 4280953374
-0.167312 -0.27343601 2.1340399 4281084968
0.39752331 -0.27118668 2.1314001 4286742968
0.40529707 -0.27327645 2.1321771 4286743155
0.41531 -0.27403247 2.1324317 4286414211
0.42471895 -0.27369893 2.1322689 4286808962
0.43442366 -0.27245906 2.1314003 4286348436
0.44554466 -0.27303734 2.1320605 4286545773
0.45496896 -0.27481213 2.1327901 4286808967
0.46491539 -0.2753675 2.1338756 4286479979
0.47472849 -0.27467746 2.1333804 4286413961
0.48432946 -0.27325296 2.1319828 4286545796
0.49532002 -0.27460837 2.1320953 4286282627
0.50481683 -0.27554527 2.1348741 4286348414
0.51401502 -0.2760219 2.1371751 4286545803
0.52731252 -0.27782249 2.1371751 4286677347
0.53484213 -0.2779043 2.136586 4286282616
0.54524499 -0.27782837 2.1358004 4286282612
0.55507231 -0.27669591 2.1345065 4286348161
0.56503391 -0.276465 2.1352503 4286414221
0.57484996 -0.27613997 2.1365337 4286216815
0.58526003 -0.27882499 2.1363502 4286216564
0.59379995 -0.2783775 2.1371751 4286348465
0.60123003 -0.27792999 2.138 4286480248
0.61453003 -0.27792999 2.138 4286413881
-0.40158287 -0.26491144 2.1351714 4281940278
-0.39622697 -0.26295298 2.1333802 4282137636
-0.38692003 -0.26257402 2.1320601 4281677135
-0.37641001 -0.26161 2.1314001 4281479745
-0.30323356 -0.26544502 2.1330504 4280887580
-0.29517123 -0.26540813 2.135319 4280887580
-0.28778249 -0.26410002 2.1359377 4281150765
-0.27422801 -0.264384 2.1360202 4281216561
-0.26479998 -0.26602998 2.1314001 4280756011
-0.17445 -0.26865 2.1347001 4280953374
0.29493248 -0.26216251 2.1314001 4287072159
0.30579832 -0.26197836 2.1314001 4286874782
0.31555748 -0.26286498 2.1326375 4286874742
0.32521889 -0.26326945 2.1339672 4287072107
0.33470002 -0.263585 2.1325004 4286677362
0.34189498 -0.26161 2.1314001 4286611427
0.37836999 -0.26161 2.1314001 4286940536
0.38500002 -0.26299125 2.1314001 4286743186
0.394757 -0.2641705 2.1351953 4286874738
0.40527722 -0.26570114 2.1367171 4286743216
0.41492301 -0.26472703 2.1370103 4286545802
0.42548057 -0.26597703 2.1362534 4286874519
0.43503314 -0.26426637 2.1359005 4286479736
0.44416466 -0.26563135 2.1353602 4286743152
0.45454085 -0.26740083 2.1380002 4286677396
0.46599147 -0.26684573 2.1380002 4286545790
0.47567853 -0.26446453 2.1366804 4286611578
0.48505196 -0.26524901 2.1340404 4286545783
0.49534899 -0.26464579 2.1362636 4286414218
0.50302005 -0.26650891 2.1372669 4286480021
-0.39263749 -0.25878751 2.1355252 4281940300
-0.38398111 -0.25662553 2.1359837 4281545541
-0.37562385 -0.25462538 2.1341925 4281413949
-0.301265 -0.25940001 2.1314001 4281150762
-0.29486001 -0.25959501 2.13305 4281216560
-0.28733501 -0.25979 2.1347001 4281282357
-0.27288499 -0.25641 2.1341503 4281479745
-0.26935667 -0.25658 2.1324999 4281611336
0.1987875 -0.25221747 2.1314001 4287269724
0.20412834 -0.25129664 2.1314001 4287466866
0.213705 -0.25055999 2.1314001 4286808744
0.22697499 -0.25055999 2.1314001 4287006476
0.23575999 -0.25130001 2.1323428 4286940535
0.24516001 -0.25277731 2.1332002 4286809205
0.25437897 -0.25188601 2.1314003 4287203710
0.26484635 -0.25256911 2.1314003 4286940316
0.27407563 -0.25318438 2.1314006 4287006339
0.28542751 -0.25483948 2.1330504 4287335269
0.29543731 -0.25506401 2.1347005 4287269487
0.30494997 -0.25614682 2.1353951 4287072123
0.31468216 -0.25745997 2.1363504 4286677397
0.32558334 -0.25797999 2.138 4287269232
0.33542901 -0.25659746 2.1366804 4286479992
0.34522259 -0.25526476 2.1338398 4286743165
0.35482308 -0.25265849 2.1319082 4286940505
0.36472848 -0.25314462 2.1331773 4286940808
0.37521151 -0.25453296 2.1342053 4286743181
0.38446239 -0.25626174 2.1356711 4286874717
0.39061999 -0.25797999 2.138 4286874882
0.41057 -0.25797999 2.138 4286940536
0.47708002 -0.25797999 2.138 4286677400
0.48469082 -0.25784001 2.135462 4286414223
0.49037999 -0.25797999 2.138 4286216921
-0.38199997 -0.24393666 2.1380002 4281348151
-0.37532851 -0.24597462 2.1344464 4281348151
0.16250665 -0.24244666 2.1314001 4287598450
0.18681668 -0.243185 2.1314001 4287269223
0.19510472 -0.24464117 2.1319828 4287137925
0.20488437 -0.24505377 2.1316068 4287335266
0.21481003 -0.24421802 2.1314006 4286677377
0.22498134 -0.24480864 2.1314006 4287203710
0.23512714 -0.24508956 2.1342289 4287072123
0.24446544 -0.24645545 2.1377001 4286940552
0.25523224 -0.24503951 2.1359003 4287006318
0.26501203 -0.24435452 2.1351953 4286743188
0.27492723 -0.24431323 2.1348324 4287269502
0.28423846 -0.24592307 2.1369848 4287203739
0.29306751 -0.248555 2.138 4287400838
0.34590665 -0.24836999 2.1380002 4286677400
0.35489133 -0.24671599 2.1364603 4286940763
0.36464715 -0.24815856 2.1380002 4286940298
0.37066001 -0.24911 2.138 4286809229
-0.38205856 -0.23396857 2.1356428 4281611325
-0.37766501 -0.23627751 2.132225 4281282355
0.026212001 -0.23139668 2.1314001 4287269516
0.035347 -0.23154399 2.1314001 4287532937
0.044630002 -0.23148873 2.1314001 4287401055
0.054576002 -0.23066001 2.1314001 4287006332
0.078224801 -0.231986 2.1314001 4287335312
0.08580415 -0.23329309 2.1321619 4287137923
0.095034808 -0.23536 2.1330507 4287664210
0.10423562 -0.23371811 2.1328442 4287071884
0.11598466 -0.23323669 2.1320605 4286874771
0.12526554 -0.23229334 2.1328669 4287532650
0.13525376 -0.23422125 2.1336694 4286611592
0.14505234 -0.23628883 2.1341181 4286940562
0.15541273 -0.23514046 2.1338005 4287269466
0.164929 -0.23489001 2.1337104 4287401053
0.17518999 -0.23498583 2.1322258 4286874745
0.18501444 -0.23593391 2.1347003 4286874736
0.19515 -0.2369806 2.1352503 4287006303
0.20520124 -0.23657316 2.1349065 4287138133
0.2151428 -0.23544039 2.1347005 4286874749
0.22493048 -0.23567423 2.1347003 4287401075
0.23247999 -0.23753221 2.1357999 4286611602
0.26425001 -0.23802 2.138 4286742862
0.27616623 -0.23691374 2.1380002 4287269449
0.28198001 -0.23802 2.138 4287203863
-0.38775998 -0.228625 2.13305 4281940282
-0.041567001 -0.22182 2.1314001 4287467190
-0.032726202 -0.22314601 2.1314001 4286940772
-0.0017838 -0.22182 2.1314001 4287269516
0.0060181711 -0.22418477 2.1340058 4287137899
0.014439777 -0.22427723 2.1337838 4286874735
0.025272954 -0.22451232 2.1341004 4287730277
0.034722272 -0.22476946 2.1337838 4287664233
0.04488742 -0.22457379 2.1348379 4287335298
0.054488577 -0.22462578 2.1348741 4287137874
0.063871764 -0.22468002 2.1314006 4286874749
0.074649364 -0.22471064 2.132638 4287203682
0.083924375 -0.2263694 2.1365564 4287269514
0.093984403 -0.22871599 2.138 4287532696
0.10541625 -0.22823748 2.1371753 4287269516
0.11453301 -0.22724101 2.1366801 4287072155
0.1243409 -0.22768182 2.1374002 4287598698
0.13123 -0.22916 2.138 4286874882
0.16780999 -0.22916 2.138 4286874525
0.1744625 -0.22804999 2.1380002 4286808669
0.18074 -0.22842 2.138 4287335248
-0.17027999 -0.21585 2.138 4281348151
-0.16806 -0.21585 2.138 4281413947
-0.043617819 -0.21479817 2.1335001 4287335245
-0.034712482 -0.21520695 2.1354177 4287072109
-0.025384221 -0.21502279 2.1334171 4287269496
-0.015048125 -0.21329747 2.131813 4287072134
-0.0049278582 -0.21513158 2.1331375 4287137909
0.001757167 -0.21635099 2.1363502 4287072139
0.01815 -0.21901 2.1363502 4287598497
0.023325501 -0.21869665 2.1368999 4287796106
0.03524214 -0.21824285 2.1365857 4287532679
0.043088749 -0.2174325 2.1371753 4287203724
0.0580245 -0.21901 2.1363502 4287072130
0.06464 -0.21780135 2.1353605 4287532685
0.073531665 -0.21901 2.1363499 4287795824
-0.045642544 -0.20419548 2.1341002 4286940551
-0.035360716 -0.20825286 2.1380002 4286874798
-0.023546545 -0.20589091 2.1371002 4286940544
-0.015290858 -0.20546189 2.1364291 4287269465
-0.0057773003 -0.20714402 2.1373403 4287598445
0.00042766001 -0.20919999 2.138 4287335170
-0.05441089 -0.19851553 2.1343334 4287137906
-0.048346002 -0.19812 2.138 4286874882
-0.14581299 -0.44376296 2.14658 4281808710
-0.14634572 -0.43636146 2.1446002 4281677134
-0.14845499 -0.42633998 2.1429501 4281545541
-0.17316499 -0.34243 2.14625 4280887580
-0.16388832 -0.34317335 2.14625 4281084969
-0.28288752 -0.29135001 2.1429501 4280755987
-0.27831715 -0.29479143 2.1431859 4280558610
0.63990003 -0.29168001 2.1413 4286151268
0.66312999 -0.29212999 2.1445999 4285887940
0.68652999 -0.29168001 2.1413 4286282574
-0.29062 -0.28519601 2.1426201 4280953375
-0.28494498 -0.28567997 2.1454999 4280821784
-0.27680999 -0.28509 2.1445999 4281150763
0.60438001 -0.28058001 2.1413 4286413881
0.61769998 -0.28058001 2.1413 4286282574
0.62658 -0.28058001 2.1413 4286150969
0.636015 -0.28113502 2.1413 4286019148
0.64570248 -0.2817975 2.1421249 4286282603
0.6563583 -0.28342751 2.1418502 4286084956
0.6656366 -0.28482524 2.1438143 4286019427
0.67513251 -0.28438917 2.1421249 4286085253
0.68418205 -0.28315198 2.1422901 4286019484
-0.29043999 -0.27502999 2.1413 4280953377
-0.28575999 -0.27521938 2.146347 4280821783
-0.27566999 -0.27468249 2.1429501 4280624395
-0.172895 -0.27412999 2.1429501 4280953374
0.50889999 -0.27169999 2.1413 4286611555
0.517425 -0.27346998 2.1421249 4286413926
0.524508 -0.27432796 2.1421802 4286480001
0.53573698 -0.27301902 2.1429501 4286414192
0.54505467 -0.27286538 2.1451077 4286282645
0.55387998 -0.27187729 2.1443 4286414203
0.56639165 -0.27137667 2.1445999 4286151033
0.574974 -0.271422 2.1426201 4286282570
0.58607 -0.27435294 2.1426589 4286084983
0.59562892 -0.2739 2.143775 4286348141
0.60526997 -0.27504215 2.1438928 4286282388
0.61523151 -0.27639002 2.1446002 4286348419
0.62554699 -0.27665925 2.1453614 4286085220
0.63497466 -0.27601936 2.1461399 4285953606
0.6452561 -0.27502719 2.1451499 4286216824
0.65553093 -0.27472818 2.1468499 4286150782
0.66644502 -0.27542281 2.1453333 4286085253
0.67518574 -0.27457315 2.1445999 4286085251
0.6849488 -0.27532291 2.146153 4285953647
-0.40257001 -0.2606 2.1413 4281874484
-0.29043999 -0.26947999 2.1413 4281150763
-0.28417102 -0.26538599 2.14592 4281150765
-0.27769336 -0.26558337 2.1457 4281084967
-0.17580751 -0.26877999 2.1445999 4280887580
0.39787999 -0.2606 2.1413 4287138209
0.404984 -0.26104397 2.1413 4286743217
0.41341999 -0.2606 2.1413 4286940536
0.42357144 -0.26123428 2.1413 4286677375
0.43340999 -0.2606 2.1413 4286545902
0.44628596 -0.26104397 2.1413 4286874739
0.45479202 -0.26241598 2.1416299 4286611849
0.46407372 -0.2636525 2.1413 4286808719
0.47115001 -0.26503998 2.1413 4286282565
0.506028 -0.26360804 2.1422901 4286611568
0.51434928 -0.26690429 2.1448357 4286808959
0.5257445 -0.26680446 2.1445999 4286348417
0.53452235 -0.26569587 2.1455708 4286611602
0.54488999 -0.26719499 2.1474874 4286414472
0.55579537 -0.26594865 2.14746 4286216805
0.56200838 -0.26750335 2.14625 4286084911
0.57599163 -0.26735166 2.1465249 4286414241
0.58227795 -0.26835999 2.1465802 4286085320
0.59851003 -0.26460832 2.1468 4286151013
0.60244006 -0.26564997 2.14625 4286216851
0.64633751 -0.26752499 2.1479001 4286216816
0.65580249 -0.26752499 2.1479001 4285953652
0.66979998 -0.26989001 2.1445999 4286216921
-0.40310749 -0.25795999 2.1470752 4281677134
-0.39423367 -0.25542819 2.1436999 4281874501
-0.38761202 -0.252386 2.14328 4281742927
-0.28214332 -0.25667667 2.1457 4281413947
-0.27532998 -0.25358498 2.1446002 4281479745
0.30795002 -0.25171 2.1413 4287269447
0.31509143 -0.25266141 2.1413 4286611670
0.32471198 -0.25351554 2.143445 4287006314
0.33403599 -0.25223199 2.1419599 4286677391
0.38677999 -0.25171 2.1413 4287203692
0.39536056 -0.25421163 2.1436834 4286874766
0.40471131 -0.25460526 2.1437392 4286874725
0.41495836 -0.25418943 2.1435001 4286545540
0.42477995 -0.25553474 2.1449473 4286611300
0.43482178 -0.25521472 2.1444058 4286545531
0.44429141 -0.25641641 2.1448357 4286677124
0.45535544 -0.25709727 2.1457999 4286611616
0.46494284 -0.25673428 2.1448357 4286479977
0.47453415 -0.25565335 2.1448748 4286611594
0.48440999 -0.25369698 2.1449299 4286545822
0.49520865 -0.255238 2.14482 4286480007
0.50419855 -0.25610998 2.1462498 4286413943
0.57729 -0.25805998 2.1479001 4286480307
0.59622002 -0.25582999 2.1479001 4286085188
0.60167801 -0.256262 2.14592 4286216814
-0.38399836 -0.24709332 2.1429501 4281413949
0.24626198 -0.242645 2.1416299 4286808955
0.25503001 -0.24061 2.1413 4287072357
0.28768572 -0.24267285 2.1427143 4287335288
0.29505286 -0.24492429 2.1443641 4287401310
0.30454308 -0.24796309 2.144346 4287203682
0.31534371 -0.24895999 2.1462498 4286611836
0.32767001 -0.24865334 2.1468 4287137879
0.33553216 -0.24736711 2.14625 4286874739
0.34442368 -0.24417844 2.1439052 4286677374
0.354855 -0.241905 2.1429501 4287072115
0.36491922 -0.2434023 2.1433308 4287137915
0.37395713 -0.24611714 2.1450713 4286874510
0.3848764 -0.24783714 2.1448357 4286940570
0.39227748 -0.24794251 2.1470752 4286677416
0.40568671 -0.24797499 2.1473501 4286743172
0.41398498 -0.24719918 2.1470747 4286348169
0.60117 -0.24778001 2.1457 4286348228
-0.38681501 -0.2356025 2.1462502 4281545542
0.14475201 -0.23173001 2.1413 4287006323
0.18805 -0.23173 2.1413 4286874941
0.19454798 -0.232246 2.1419599 4287401270
0.20396499 -0.2321 2.1413 4287006123
0.22913 -0.23173 2.1413 4286742862
0.23599 -0.2337418 2.1431 4286545822
0.24509265 -0.2357505 2.1459892 4286677121
0.25511652 -0.23436399 2.1450949 4287269500
0.26478741 -0.2349984 2.1423423 4287138161
0.27475092 -0.23374818 2.1413 4287072062
0.28580499 -0.23489001 2.1448061 4287401073
0.2922 -0.23913001 2.1479001 4287335170
0.34676999 -0.23913001 2.1479001 4286940535
0.35456401 -0.23912999 2.1479001 4287006517
0.36347333 -0.23913001 2.1479001 4287269516
-0.17081 -0.22207999 2.1445999 4281282355
-0.16845 -0.22191 2.1429501 4281282355
0.086098 -0.22201446 2.1427667 4287203454
0.094856307 -0.22456001 2.1446002 4287532671
0.10466312 -0.22386375 2.1443937 4287203459
0.114902 -0.222644 2.14361 4287137903
0.12508215 -0.22295855 2.1438928 4287466878
0.134734 -0.22613265 2.1443799 4286874731
0.14494716 -0.22799574 2.1464856 4287072107
0.15498666 -0.22763665 2.1446002 4287203705
0.1652694 -0.22621939 2.144794 4287203691
0.17500001 -0.22318996 2.1445999 4287269481
0.18502785 -0.22655213 2.1448357 4287269480
0.19541664 -0.22841777 2.1449666 4287467101
0.20504203 -0.22765999 2.14482 4287006311
0.21475855 -0.22705139 2.1450713 4287203699
0.2249465 -0.22715469 2.1449881 4287269502
0.232742 -0.22822198 2.14592 4286545790
0.25593001 -0.2270343 2.1478999 4287335251
0.26533732 -0.22787002 2.1467998 4287137654
0.27528504 -0.22781169 2.14625 4287006318
0.28160802 -0.22815199 2.1452599 4287137678
-0.17054 -0.21841 2.1413 4281282355
-0.16832 -0.21841 2.1413 4281479743
-0.041758999 -0.21175 2.1413 4286809229
0.0070975772 -0.21434076 2.1433308 4287466644
0.014706527 -0.21404263 2.1444263 4287203717
0.02466126 -0.21386158 2.1449473 4287532897
0.034746923 -0.21322998 2.1450715 4287466901
0.045377709 -0.21379647 2.1443641 4287401077
0.054684736 -0.21516337 2.1443799 4287664207
0.064920135 -0.21207 2.1445999 4287072094
0.075288415 -0.21482499 2.144325 4287401042
0.084476918 -0.21714248 2.1470749 4287137901
0.11490999 -0.21863599 2.1479001 4287203719
0.12459999 -0.21908 2.1479001 4287466798
-0.042241998 -0.20527402 2.14328 4286545750
-0.0349955 -0.20384941 2.1425831 4286742902
-0.026961334 -0.20363887 2.1416669 4287335511
-0.01400425 -0.20063999 2.1413 4287401352
-0.0044584302 -0.20273399 2.1422901 4287401019
0.0043242401 -0.20557602 2.1452599 4287532913
0.01490675 -0.20795 2.1479001 4287269753
0.020475 -0.20795 2.1479001 4287203863
